ply
format ascii 1.0
comment author: Skandal
element vertex 1268
property float x
property float y
property float z
element face 0
property list uchar int vertex_index
element edge 0
property int vertex1
property int vertex2
property uchar red
property uchar green
property uchar blue
end_header
0.877876270537 -1.13175126845 27.852
0.731563558781 -0.943126057038 27.6832
0.438938135269 -0.565875634223 27.5144
0.438938135269 -0.565875634223 27.3456
0.731563558781 -0.943126057038 27.1768
0.585250847025 -0.75450084563 27.008
0.731563558781 -0.943126057038 26.8392
1.02418898229 -1.32037647985 26.6704
0.877876270537 -1.13175126845 26.5016
0.731563558781 -0.943126057038 26.3328
0.585250847025 -0.75450084563 26.164
0.438938135269 -0.565875634223 25.9952
0.585250847025 -0.75450084563 25.8264
1.17050169405 -1.50900169126 25.6576
1.02418898229 -1.32037647985 25.4888
0.731563558781 -0.943126057038 25.32
0.731563558781 -0.943126057038 25.1512
0.731563558781 -0.943126057038 24.9824
0.731563558781 -0.943126057038 24.8136
0.585250847025 -0.75450084563 24.6448
0.585250847025 -0.75450084563 24.476
1.60943982932 -2.07487732548 24.3072
1.31681440581 -1.69762690267 24.1384
1.17050169405 -1.50900169126 23.9696
0.877876270537 -1.13175126845 23.8008
0.731563558781 -0.943126057038 23.632
1.17050169405 -1.50900169126 23.4632
1.46312711756 -1.88625211408 23.2944
2.19469067634 -2.82937817111 23.1256
1.75575254107 -2.26350253689 22.9568
2.19469067634 -2.82937817111 22.788
2.04837796459 -2.64075295971 22.6192
1.60943982932 -2.07487732548 22.4504
1.46312711756 -1.88625211408 22.2816
1.46312711756 -1.88625211408 22.1128
2.04837796459 -2.64075295971 21.944
2.48731609986 -3.20662859393 21.7752
2.3410033881 -3.01800338252 21.6064
2.77994152337 -3.58387901674 21.4376
2.3410033881 -3.01800338252 21.2688
2.3410033881 -3.01800338252 21.1
2.77994152337 -3.58387901674 20.9312
2.63362881161 -3.39525380534 20.7624
2.63362881161 -3.39525380534 20.5936
3.65781779391 -4.71563028519 20.4248
2.3410033881 -3.01800338252 20.256
2.3410033881 -3.01800338252 20.0872
2.92625423512 -3.77250422815 19.9184
3.21887965864 -4.14975465097 19.7496
3.21887965864 -4.14975465097 19.5808
3.07256694688 -3.96112943956 19.412
3.21887965864 -4.14975465097 19.2432
4.24306864093 -5.47013113082 19.0744
4.09675592917 -5.28150591941 18.9056
3.21887965864 -4.14975465097 18.7368
3.21887965864 -4.14975465097 18.568
3.65781779391 -4.71563028519 18.3992
3.95044321742 -5.092880708 18.2304
4.38938135269 -5.65875634223 18.0616
3.80413050566 -4.9042554966 17.8928
3.51150508215 -4.52700507378 17.724
4.09675592917 -5.28150591941 17.5552
4.38938135269 -5.65875634223 17.3864
5.12094491147 -6.60188239926 17.2176
4.97463219971 -6.41325718786 17.0488
4.82831948796 -6.22463197645 16.88
3.80413050566 -4.9042554966 16.7112
2.92625423512 -3.77250422815 16.5424
4.53569406444 -5.84738155363 16.3736
5.26725762322 -6.79050761067 16.2048
4.09675592917 -5.28150591941 16.036
4.82831948796 -6.22463197645 15.8672
5.41357033498 -6.97913282208 15.6984
5.12094491147 -6.60188239926 15.5296
3.95044321742 -5.092880708 15.3608
3.95044321742 -5.092880708 15.192
5.55988304674 -7.16775803349 15.0232
0.146312711756 -0.188625211408 133.1832
0.146312711756 -0.188625211408 133.0144
0.146312711756 -0.188625211408 132.8456
0.146312711756 -0.188625211408 132.6768
0.146312711756 -0.188625211408 132.508
0.146312711756 -0.188625211408 132.3392
0.146312711756 -0.188625211408 132.1704
0.146312711756 -0.188625211408 132.0016
0.146312711756 -0.188625211408 131.8328
0.146312711756 -0.188625211408 131.664
0.146312711756 -0.188625211408 131.4952
0.146312711756 -0.188625211408 131.3264
0.146312711756 -0.188625211408 131.1576
0.146312711756 -0.188625211408 130.9888
0.146312711756 -0.188625211408 130.82
0.146312711756 -0.188625211408 130.6512
0.140315654194 -0.193127929591 133.1832
0.140315654194 -0.193127929591 133.0144
0.140315654194 -0.193127929591 132.8456
0.140315654194 -0.193127929591 132.6768
0.140315654194 -0.193127929591 132.508
0.140315654194 -0.193127929591 132.3392
0.140315654194 -0.193127929591 132.1704
0.140315654194 -0.193127929591 132.0016
0.140315654194 -0.193127929591 131.8328
0.140315654194 -0.193127929591 131.664
0.140315654194 -0.193127929591 131.4952
0.140315654194 -0.193127929591 131.3264
0.140315654194 -0.193127929591 131.1576
0.140315654194 -0.193127929591 130.9888
0.140315654194 -0.193127929591 130.82
0.140315654194 -0.193127929591 130.6512
0.140315654194 -0.193127929591 130.4824
0.140315654194 -0.193127929591 130.3136
0.140315654194 -0.193127929591 130.1448
0.140315654194 -0.193127929591 129.976
0.140315654194 -0.193127929591 129.8072
0.140315654194 -0.193127929591 129.6384
0.140315654194 -0.193127929591 129.4696
0.140315654194 -0.193127929591 129.3008
0.140315654194 -0.193127929591 129.132
0.140315654194 -0.193127929591 128.9632
0.140315654194 -0.193127929591 128.7944
0.140315654194 -0.193127929591 128.6256
0.140315654194 -0.193127929591 128.4568
0.140315654194 -0.193127929591 128.288
0.140315654194 -0.193127929591 128.1192
0.140315654194 -0.193127929591 127.9504
0.140315654194 -0.193127929591 127.7816
0.140315654194 -0.193127929591 127.6128
0.140315654194 -0.193127929591 127.444
0.140315654194 -0.193127929591 127.2752
0.140315654194 -0.193127929591 127.1064
0.140315654194 -0.193127929591 126.9376
0.140315654194 -0.193127929591 126.7688
0.140315654194 -0.193127929591 126.6
0.140315654194 -0.193127929591 126.4312
0.140315654194 -0.193127929591 126.2624
0.140315654194 -0.193127929591 126.0936
0.140315654194 -0.193127929591 125.9248
0.140315654194 -0.193127929591 125.756
0.140315654194 -0.193127929591 125.5872
0.140315654194 -0.193127929591 125.4184
0.140315654194 -0.193127929591 125.2496
0.140315654194 -0.193127929591 125.0808
0.140315654194 -0.193127929591 124.912
0.140315654194 -0.193127929591 124.7432
0.140315654194 -0.193127929591 124.5744
0.140315654194 -0.193127929591 124.4056
0.140315654194 -0.193127929591 124.2368
0.140315654194 -0.193127929591 124.068
0.140315654194 -0.193127929591 123.8992
0.140315654194 -0.193127929591 123.7304
0.140315654194 -0.193127929591 123.5616
0.140315654194 -0.193127929591 123.3928
0.140315654194 -0.193127929591 123.224
0.140315654194 -0.193127929591 123.0552
0.140315654194 -0.193127929591 122.8864
0.140315654194 -0.193127929591 122.7176
0.140315654194 -0.193127929591 122.5488
0.140315654194 -0.193127929591 122.38
0.140315654194 -0.193127929591 122.2112
0.140315654194 -0.193127929591 122.0424
0.140315654194 -0.193127929591 121.8736
0.140315654194 -0.193127929591 121.7048
0.140315654194 -0.193127929591 121.536
0.140315654194 -0.193127929591 121.3672
0.140315654194 -0.193127929591 121.1984
0.140315654194 -0.193127929591 121.0296
0.140315654194 -0.193127929591 120.8608
0.140315654194 -0.193127929591 120.692
0.140315654194 -0.193127929591 120.5232
0.140315654194 -0.193127929591 120.3544
0.140315654194 -0.193127929591 120.1856
0.140315654194 -0.193127929591 120.0168
0.140315654194 -0.193127929591 119.848
0.140315654194 -0.193127929591 119.6792
0.140315654194 -0.193127929591 119.5104
0.0 -0.0 119.3416
-0.140315654194 0.193127929591 119.1728
0.0 -0.0 119.004
-0.701578270968 0.965639647956 118.8352
-1.82410350452 2.51066308469 118.6664
-3.50789135484 4.82819823978 118.4976
-3.78852266323 5.21445409896 118.3288
-4.34978528 5.98696581733 118.16
-4.4901009342 6.18009374692 117.9912
-3.92883831742 5.40758202856 117.8224
-3.92883831742 5.40758202856 117.6536
-5.61262616775 7.72511718365 117.4848
-7.15609836388 9.84952440915 117.316
-7.43672967226 10.2357802683 117.1472
-7.29641401807 10.0426523387 116.9784
-8.55925490581 11.7808037051 116.8096
-9.54146448517 13.1326992122 116.6408
-9.96241144775 13.712083001 116.472
-10.3833584103 14.2914667898 116.3032
-11.3655679897 15.6433622969 116.1344
-12.0671462607 16.6090019448 115.9656
-12.9090401858 17.7677695224 115.7968
-12.7687245316 17.5746415928 115.628
-12.6284088774 17.3815136632 115.4592
-13.750934111 18.9265370999 115.2904
-14.7331436903 20.2784326071 115.1216
-15.2944063071 21.0509443254 114.9528
-15.4347219613 21.244072255 114.784
-16.5572471949 22.7890956918 114.6152
-17.9604037368 24.7203749877 114.4464
-18.2410350452 25.1066308469 114.2776
-18.100719391 24.9135029173 114.1088
-18.2410350452 25.1066308469 113.94
-19.0829289703 26.2653984244 113.7712
-20.9070324749 28.7760615091 113.6024
-20.6264011665 28.3898056499 113.4336
-20.7667168207 28.5829335795 113.2648
-21.3279794374 29.3554452979 113.096
-22.7311359794 31.2867245938 112.9272
-23.8536612129 32.8317480305 112.7584
-23.9939768671 33.0248759601 112.5896
-24.5552394839 33.7973876785 112.4208
-25.9583960258 35.7286669744 112.252
-27.0809212594 37.2736904111 112.0832
-29.6066030349 40.7499931438 111.9144
-31.9919691562 44.0331679468 111.7456
-31.851653502 43.8400400172 111.5768
-31.851653502 43.8400400172 111.408
-32.5532317729 44.8056796652 111.2392
-32.8338630813 45.1919355244 111.0704
-33.1144943897 45.5781913835 110.9016
-33.3951256981 45.9644472427 110.7328
-33.6757570065 46.3507031019 110.564
-34.3773352774 47.3163427499 110.3952
-34.9385978942 48.0888544682 110.2264
-35.6401761652 49.0544941162 110.0576
-35.7804918194 49.2476220458 109.8888
-35.7804918194 49.2476220458 109.72
-35.9208074736 49.4407499754 109.5512
-36.3417544362 50.0201337641 109.3824
-36.7627013987 50.5995175529 109.2136
-37.0433327071 50.9857734121 109.0448
-37.7449109781 51.95141306 108.876
-38.3061735949 52.7239247784 108.7072
-38.1658579407 52.5307968488 108.5384
-38.3061735949 52.7239247784 108.3696
-38.5868049033 53.1101806376 108.2008
-38.7271205575 53.3033085672 108.032
-39.14806752 53.882692356 107.8632
-39.7093301368 54.6552040743 107.6944
-40.551224062 55.8139716519 107.5256
-41.3931179871 56.9727392294 107.3568
-41.5334336413 57.165867159 107.188
-29.1856560723 40.170609355 88.4512
-29.1856560723 40.170609355 88.2824
-31.5710221936 43.453784158 86.088
-31.5710221936 43.453784158 85.9192
-31.7113378478 43.6469120876 85.7504
-31.851653502 43.8400400172 85.5816
-31.9919691562 44.0331679468 85.4128
-32.1322848104 44.2262958764 84.9064
-32.1322848104 44.2262958764 84.7376
-32.2726004645 44.419423806 84.5688
-32.4129161187 44.6125517356 84.4
-32.6935474271 44.9988075948 84.2312
-32.6935474271 44.9988075948 84.0624
-32.6935474271 44.9988075948 83.8936
41.5334336413 -57.165867159 69.3768
41.1124866787 -56.5864833702 69.208
40.6915397162 -56.0070995815 69.0392
40.9721710246 -56.3933554406 68.8704
40.6915397162 -56.0070995815 68.7016
40.6915397162 -56.0070995815 68.5328
40.1302770994 -55.2345878631 68.364
40.1302770994 -55.2345878631 68.1952
39.849645791 -54.8483320039 68.0264
39.5690144826 -54.4620761447 67.8576
39.5690144826 -54.4620761447 67.6888
39.0077518658 -53.6895644264 67.52
38.8674362116 -53.4964364968 67.3512
38.1658579407 -52.5307968488 67.1824
37.6045953239 -51.7582851305 67.0136
37.7449109781 -51.95141306 66.8448
37.6045953239 -51.7582851305 66.676
37.0433327071 -50.9857734121 66.5072
36.4820700904 -50.2132616937 66.3384
36.201438782 -49.8270058345 66.1696
35.9208074736 -49.4407499754 66.0008
35.6401761652 -49.0544941162 65.832
35.7804918194 -49.2476220458 65.6632
35.499860511 -48.8613661866 65.4944
35.0789135484 -48.2819823978 65.3256
34.2370196233 -47.1232148203 65.1568
34.5176509316 -47.5094706794 64.988
33.2548100439 -45.7713193131 64.8192
33.8160726607 -46.5438310315 64.6504
32.9741787355 -45.3850634539 64.4816
33.1144943897 -45.5781913835 64.3128
33.1144943897 -45.5781913835 64.144
32.9741787355 -45.3850634539 63.9752
32.8338630813 -45.1919355244 63.8064
32.8338630813 -45.1919355244 63.6376
32.5532317729 -44.8056796652 63.4688
32.1322848104 -44.2262958764 63.3
32.5532317729 -44.8056796652 63.1312
30.3081813058 -41.7156327917 62.9624
28.2034464929 -38.8187138478 62.7936
25.5374490632 -35.1492831856 62.6248
24.1342925213 -33.2180038897 62.456
24.1342925213 -33.2180038897 62.2872
23.8536612129 -32.8317480305 62.1184
22.0295577084 -30.3210849458 61.9496
21.3279794374 -29.3554452979 61.7808
19.7845072413 -27.2310380724 61.612
19.5038759329 -26.8447822132 61.4432
17.8200880826 -24.5272470581 61.2744
17.1185098116 -23.5616074101 61.1056
16.5572471949 -22.7890956918 60.9368
16.2766158865 -22.4028398326 60.768
14.3121967278 -19.6990488183 60.5992
13.8912497652 -19.1196650295 60.4304
12.2074619148 -16.8021298744 60.2616
12.0671462607 -16.6090019448 60.0928
11.7865149523 -16.2227460857 59.924
11.3655679897 -15.6433622969 59.7552
11.0849366813 -15.2571064377 59.5864
9.96241144775 -13.712083001 59.4176
8.13830794323 -11.2014199163 59.2488
7.15609836388 -9.84952440915 59.08
6.03357313033 -8.30450097242 58.9112
6.03357313033 -8.30450097242 58.7424
5.47231051355 -7.53198925406 58.5736
5.89325747613 -8.11137304283 58.4048
7.29641401807 -10.0426523387 58.236
7.43672967226 -10.2357802683 58.0672
7.01578270968 -9.65639647956 57.8984
7.43672967226 -10.2357802683 57.7296
7.71736098065 -10.6220361275 57.5608
8.13830794323 -11.2014199163 57.392
7.29641401807 -10.0426523387 57.2232
6.87546705549 -9.46326854997 57.0544
6.87546705549 -9.46326854997 56.8856
7.29641401807 -10.0426523387 56.7168
7.01578270968 -9.65639647956 56.548
7.15609836388 -9.84952440915 56.3792
6.03357313033 -8.30450097242 56.2104
6.17388878452 -8.49762890202 56.0416
5.75294182194 -7.91824511324 55.8728
5.47231051355 -7.53198925406 55.704
5.75294182194 -7.91824511324 55.5352
5.89325747613 -8.11137304283 55.3664
5.33199485936 -7.33886132447 55.1976
5.47231051355 -7.53198925406 55.0288
5.33199485936 -7.33886132447 54.86
5.19167920517 -7.14573339488 54.6912
5.19167920517 -7.14573339488 54.5224
4.91104789678 -6.75947753569 54.3536
4.91104789678 -6.75947753569 54.1848
5.19167920517 -7.14573339488 54.016
5.47231051355 -7.53198925406 53.8472
4.91104789678 -6.75947753569 53.6784
4.91104789678 -6.75947753569 53.5096
4.91104789678 -6.75947753569 53.3408
4.4901009342 -6.18009374692 53.172
4.91104789678 -6.75947753569 53.0032
5.33199485936 -7.33886132447 52.8344
4.91104789678 -6.75947753569 52.6656
4.77073224258 -6.5663496061 52.4968
4.4901009342 -6.18009374692 52.328
4.77073224258 -6.5663496061 52.1592
4.91104789678 -6.75947753569 51.9904
5.19167920517 -7.14573339488 51.8216
5.19167920517 -7.14573339488 51.6528
4.63041658839 -6.37322167651 51.484
5.19167920517 -7.14573339488 51.3152
5.05136355097 -6.95260546529 51.1464
4.77073224258 -6.5663496061 50.9776
4.77073224258 -6.5663496061 50.8088
4.77073224258 -6.5663496061 50.64
4.91104789678 -6.75947753569 50.4712
4.77073224258 -6.5663496061 50.3024
4.77073224258 -6.5663496061 50.1336
4.77073224258 -6.5663496061 49.9648
4.63041658839 -6.37322167651 49.796
4.34978528 -5.98696581733 49.6272
4.34978528 -5.98696581733 49.4584
4.34978528 -5.98696581733 49.2896
4.06915397162 -5.60070995815 49.1208
3.78852266323 -5.21445409896 48.952
3.92883831742 -5.40758202856 48.7832
3.64820700904 -5.02132616937 48.6144
4.06915397162 -5.60070995815 48.4456
4.06915397162 -5.60070995815 48.2768
4.06915397162 -5.60070995815 48.108
3.92883831742 -5.40758202856 47.9392
3.92883831742 -5.40758202856 47.7704
3.92883831742 -5.40758202856 47.6016
3.50789135484 -4.82819823978 47.4328
4.06915397162 -5.60070995815 47.264
3.78852266323 -5.21445409896 47.0952
3.64820700904 -5.02132616937 46.9264
3.78852266323 -5.21445409896 46.7576
3.64820700904 -5.02132616937 46.5888
3.64820700904 -5.02132616937 46.42
3.50789135484 -4.82819823978 46.2512
3.36757570065 -4.63507031019 46.0824
3.50789135484 -4.82819823978 45.9136
3.50789135484 -4.82819823978 45.7448
3.50789135484 -4.82819823978 45.576
3.36757570065 -4.63507031019 45.4072
3.50789135484 -4.82819823978 45.2384
3.78852266323 -5.21445409896 45.0696
3.92883831742 -5.40758202856 44.9008
4.06915397162 -5.60070995815 44.732
3.78852266323 -5.21445409896 44.5632
3.92883831742 -5.40758202856 44.3944
3.78852266323 -5.21445409896 44.2256
3.78852266323 -5.21445409896 44.0568
3.50789135484 -4.82819823978 43.888
3.50789135484 -4.82819823978 43.7192
3.64820700904 -5.02132616937 43.5504
3.78852266323 -5.21445409896 43.3816
3.36757570065 -4.63507031019 43.2128
3.50789135484 -4.82819823978 43.044
3.36757570065 -4.63507031019 42.8752
3.22726004645 -4.4419423806 42.7064
3.08694439226 -4.24881445101 42.5376
3.08694439226 -4.24881445101 42.3688
2.94662873807 -4.05568652142 42.2
2.94662873807 -4.05568652142 42.0312
2.52568177549 -3.47630273264 41.8624
2.38536612129 -3.28317480305 41.6936
2.38536612129 -3.28317480305 41.5248
1.82410350452 -2.51066308469 41.356
1.54347219613 -2.1244072255 41.1872
1.40315654194 -1.93127929591 41.0184
1.40315654194 -1.93127929591 40.8496
1.40315654194 -1.93127929591 40.6808
1.26284088774 -1.73815136632 40.512
1.12252523355 -1.54502343673 40.3432
0.982209579356 -1.35189550714 40.1744
0.982209579356 -1.35189550714 40.0056
0.982209579356 -1.35189550714 39.8368
0.841893925162 -1.15876757755 39.668
0.841893925162 -1.15876757755 39.4992
0.982209579356 -1.35189550714 39.3304
0.841893925162 -1.15876757755 39.1616
0.701578270968 -0.965639647956 38.9928
0.701578270968 -0.965639647956 38.824
0.841893925162 -1.15876757755 38.6552
0.982209579356 -1.35189550714 38.4864
1.12252523355 -1.54502343673 38.3176
0.701578270968 -0.965639647956 38.1488
0.701578270968 -0.965639647956 37.98
0.701578270968 -0.965639647956 37.8112
0.701578270968 -0.965639647956 37.6424
0.561262616775 -0.772511718365 37.4736
0.561262616775 -0.772511718365 37.3048
0.701578270968 -0.965639647956 37.136
0.701578270968 -0.965639647956 36.9672
0.561262616775 -0.772511718365 36.7984
0.561262616775 -0.772511718365 36.6296
0.561262616775 -0.772511718365 36.4608
0.420946962581 -0.579383788774 36.292
0.420946962581 -0.579383788774 36.1232
0.561262616775 -0.772511718365 35.9544
0.420946962581 -0.579383788774 35.7856
0.280631308387 -0.386255859183 35.6168
0.280631308387 -0.386255859183 35.448
0.420946962581 -0.579383788774 35.2792
0.280631308387 -0.386255859183 35.1104
0.280631308387 -0.386255859183 34.9416
0.280631308387 -0.386255859183 34.7728
0.280631308387 -0.386255859183 34.604
0.420946962581 -0.579383788774 34.4352
0.280631308387 -0.386255859183 34.2664
0.280631308387 -0.386255859183 34.0976
0.280631308387 -0.386255859183 33.9288
0.420946962581 -0.579383788774 33.76
0.420946962581 -0.579383788774 33.5912
0.561262616775 -0.772511718365 33.4224
0.420946962581 -0.579383788774 33.2536
0.420946962581 -0.579383788774 33.0848
0.280631308387 -0.386255859183 32.916
0.420946962581 -0.579383788774 32.7472
0.561262616775 -0.772511718365 32.5784
0.841893925162 -1.15876757755 32.4096
0.420946962581 -0.579383788774 32.2408
0.280631308387 -0.386255859183 32.072
0.420946962581 -0.579383788774 31.9032
0.561262616775 -0.772511718365 31.7344
0.420946962581 -0.579383788774 31.5656
0.561262616775 -0.772511718365 31.3968
0.561262616775 -0.772511718365 31.228
0.841893925162 -1.15876757755 31.0592
0.420946962581 -0.579383788774 30.8904
0.561262616775 -0.772511718365 30.7216
0.561262616775 -0.772511718365 30.5528
0.561262616775 -0.772511718365 30.384
0.982209579356 -1.35189550714 30.2152
1.40315654194 -1.93127929591 30.0464
0.982209579356 -1.35189550714 29.8776
1.12252523355 -1.54502343673 29.7088
0.280631308387 -0.386255859183 29.54
0.280631308387 -0.386255859183 29.3712
0.561262616775 -0.772511718365 29.2024
0.561262616775 -0.772511718365 29.0336
0.420946962581 -0.579383788774 28.8648
0.841893925162 -1.15876757755 28.696
0.982209579356 -1.35189550714 28.5272
0.701578270968 -0.965639647956 28.3584
0.561262616775 -0.772511718365 28.1896
0.561262616775 -0.772511718365 28.0208
0.561262616775 -0.772511718365 27.852
0.841893925162 -1.15876757755 27.6832
0.701578270968 -0.965639647956 27.5144
0.561262616775 -0.772511718365 27.3456
0.701578270968 -0.965639647956 27.1768
0.420946962581 -0.579383788774 27.008
0.420946962581 -0.579383788774 26.8392
0.561262616775 -0.772511718365 26.6704
0.982209579356 -1.35189550714 26.5016
0.561262616775 -0.772511718365 26.3328
0.701578270968 -0.965639647956 26.164
0.982209579356 -1.35189550714 25.9952
1.54347219613 -2.1244072255 25.8264
0.841893925162 -1.15876757755 25.6576
0.841893925162 -1.15876757755 25.4888
0.982209579356 -1.35189550714 25.32
0.701578270968 -0.965639647956 25.1512
0.701578270968 -0.965639647956 24.9824
0.841893925162 -1.15876757755 24.8136
0.982209579356 -1.35189550714 24.6448
1.12252523355 -1.54502343673 24.476
1.12252523355 -1.54502343673 24.3072
0.982209579356 -1.35189550714 24.1384
1.26284088774 -1.73815136632 23.9696
1.40315654194 -1.93127929591 23.8008
1.40315654194 -1.93127929591 23.632
1.40315654194 -1.93127929591 23.4632
1.40315654194 -1.93127929591 23.2944
1.54347219613 -2.1244072255 23.1256
2.2450504671 -3.09004687346 22.9568
2.38536612129 -3.28317480305 22.788
1.96441915871 -2.70379101428 22.6192
2.10473481291 -2.89691894387 22.4504
2.2450504671 -3.09004687346 22.2816
2.38536612129 -3.28317480305 22.1128
2.52568177549 -3.47630273264 21.944
3.64820700904 -5.02132616937 21.7752
3.08694439226 -4.24881445101 21.6064
2.2450504671 -3.09004687346 21.4376
2.10473481291 -2.89691894387 21.2688
2.52568177549 -3.47630273264 21.1
2.66599742968 -3.66943066223 20.9312
2.2450504671 -3.09004687346 20.7624
2.52568177549 -3.47630273264 20.5936
2.80631308387 -3.86255859183 20.4248
2.2450504671 -3.09004687346 20.256
2.2450504671 -3.09004687346 20.0872
2.80631308387 -3.86255859183 19.9184
2.94662873807 -4.05568652142 19.7496
2.94662873807 -4.05568652142 19.5808
2.94662873807 -4.05568652142 19.412
2.52568177549 -3.47630273264 19.2432
2.94662873807 -4.05568652142 19.0744
1.82410350452 -2.51066308469 18.9056
2.38536612129 -3.28317480305 18.7368
2.80631308387 -3.86255859183 18.568
2.80631308387 -3.86255859183 18.3992
3.22726004645 -4.4419423806 18.2304
4.77073224258 -6.5663496061 18.0616
5.05136355097 -6.95260546529 17.8928
3.64820700904 -5.02132616937 17.724
3.36757570065 -4.63507031019 17.5552
2.52568177549 -3.47630273264 17.3864
3.22726004645 -4.4419423806 17.2176
4.4901009342 -6.18009374692 17.0488
4.06915397162 -5.60070995815 16.88
3.22726004645 -4.4419423806 16.7112
3.22726004645 -4.4419423806 16.5424
3.92883831742 -5.40758202856 16.3736
3.78852266323 -5.21445409896 16.2048
3.92883831742 -5.40758202856 16.036
4.63041658839 -6.37322167651 15.8672
5.33199485936 -7.33886132447 15.6984
5.61262616775 -7.72511718365 15.5296
6.31420443872 -8.69075683161 15.3608
6.45452009291 -8.8838847612 15.192
6.17388878452 -8.49762890202 15.0232
0.140315654194 -0.193127929591 133.1832
0.140315654194 -0.193127929591 133.0144
0.140315654194 -0.193127929591 132.8456
0.140315654194 -0.193127929591 132.6768
0.134180122021 -0.197440053825 133.1832
0.134180122021 -0.197440053825 133.0144
0.134180122021 -0.197440053825 132.8456
0.134180122021 -0.197440053825 132.6768
0.134180122021 -0.197440053825 132.508
0.134180122021 -0.197440053825 132.3392
0.134180122021 -0.197440053825 132.1704
0.134180122021 -0.197440053825 132.0016
0.134180122021 -0.197440053825 131.8328
0.134180122021 -0.197440053825 131.664
0.134180122021 -0.197440053825 131.4952
0.134180122021 -0.197440053825 131.3264
0.134180122021 -0.197440053825 131.1576
0.134180122021 -0.197440053825 130.9888
0.134180122021 -0.197440053825 130.82
0.134180122021 -0.197440053825 130.6512
0.134180122021 -0.197440053825 130.4824
0.134180122021 -0.197440053825 130.3136
0.134180122021 -0.197440053825 130.1448
0.134180122021 -0.197440053825 129.976
0.134180122021 -0.197440053825 129.8072
0.134180122021 -0.197440053825 129.6384
0.134180122021 -0.197440053825 129.4696
0.134180122021 -0.197440053825 129.3008
0.134180122021 -0.197440053825 129.132
0.134180122021 -0.197440053825 128.9632
0.134180122021 -0.197440053825 128.7944
0.134180122021 -0.197440053825 128.6256
0.134180122021 -0.197440053825 128.4568
0.134180122021 -0.197440053825 128.288
0.134180122021 -0.197440053825 128.1192
0.134180122021 -0.197440053825 127.9504
0.134180122021 -0.197440053825 127.7816
0.134180122021 -0.197440053825 127.6128
0.134180122021 -0.197440053825 127.444
0.134180122021 -0.197440053825 127.2752
0.134180122021 -0.197440053825 127.1064
0.134180122021 -0.197440053825 126.9376
0.134180122021 -0.197440053825 126.7688
0.134180122021 -0.197440053825 126.6
0.134180122021 -0.197440053825 126.4312
0.134180122021 -0.197440053825 126.2624
0.134180122021 -0.197440053825 126.0936
0.134180122021 -0.197440053825 125.9248
0.134180122021 -0.197440053825 125.756
0.134180122021 -0.197440053825 125.5872
0.134180122021 -0.197440053825 125.4184
0.134180122021 -0.197440053825 125.2496
0.134180122021 -0.197440053825 125.0808
0.134180122021 -0.197440053825 124.912
0.134180122021 -0.197440053825 124.7432
0.134180122021 -0.197440053825 124.5744
0.134180122021 -0.197440053825 124.4056
0.134180122021 -0.197440053825 124.2368
0.134180122021 -0.197440053825 124.068
0.134180122021 -0.197440053825 123.8992
0.134180122021 -0.197440053825 123.7304
0.134180122021 -0.197440053825 123.5616
0.134180122021 -0.197440053825 123.3928
0.134180122021 -0.197440053825 123.224
0.134180122021 -0.197440053825 123.0552
0.134180122021 -0.197440053825 122.8864
0.134180122021 -0.197440053825 122.7176
0.134180122021 -0.197440053825 122.5488
0.134180122021 -0.197440053825 122.38
0.134180122021 -0.197440053825 122.2112
0.134180122021 -0.197440053825 122.0424
0.134180122021 -0.197440053825 121.8736
0.134180122021 -0.197440053825 121.7048
0.134180122021 -0.197440053825 121.536
0.134180122021 -0.197440053825 121.3672
0.134180122021 -0.197440053825 121.1984
0.134180122021 -0.197440053825 121.0296
0.134180122021 -0.197440053825 120.8608
0.134180122021 -0.197440053825 120.692
0.134180122021 -0.197440053825 120.5232
0.134180122021 -0.197440053825 120.3544
0.134180122021 -0.197440053825 120.1856
0.134180122021 -0.197440053825 120.0168
0.134180122021 -0.197440053825 119.848
0.134180122021 -0.197440053825 119.6792
0.134180122021 -0.197440053825 119.5104
0.0 -0.0 119.3416
-0.134180122021 0.197440053825 119.1728
-0.402540366063 0.592320161475 119.004
-0.670900610105 0.987200269125 118.8352
-1.87852170829 2.76416075355 118.6664
-2.5494223184 3.75136102268 118.4976
-3.08614280648 4.54112123798 118.3288
-3.89122353861 5.72576156093 118.16
-3.75704341659 5.5283215071 117.9912
-4.02540366063 5.92320161475 117.8224
-4.15958378265 6.12064166858 117.6536
-5.63556512488 8.29248226065 117.4848
-6.70900610105 9.87200269125 117.316
-7.64826695519 11.254083068 117.1472
-7.37990671115 10.8592029604 116.9784
-7.64826695519 11.254083068 116.8096
-8.72170793136 12.8336034986 116.6408
-10.0635091516 14.8080040369 116.472
-10.4660495176 15.4003241984 116.3032
-10.7344097617 15.795204306 116.1344
-10.8685898837 15.9926443598 115.9656
-11.0027700057 16.1900844137 115.7968
-11.4053103718 16.7824045751 115.628
-11.2711302498 16.5849645213 115.4592
-12.61293147 18.5593650596 115.2904
-13.6863724461 20.1388854902 115.1216
-14.3572730562 21.1260857593 114.9528
-15.4307140324 22.7056061899 114.784
-15.5648941544 22.9030462437 114.6152
-16.5041550086 24.2851266205 114.4464
-17.1750556187 25.2723268896 114.2776
-17.0408754967 25.0748868358 114.1088
-17.3092357407 25.4697669434 113.94
-17.9801363508 26.4569672126 113.7712
-19.456117693 28.6288078046 113.6024
-20.1270183031 29.6160080738 113.4336
-19.8586580591 29.2211279661 113.2648
-20.1270183031 29.6160080738 113.096
-21.0662791573 30.9980884505 112.9272
-22.4080803775 32.9724889888 112.7584
-23.3473412316 34.3545693656 112.5896
-23.6157014757 34.7494494732 112.4208
-24.5549623298 36.13152985 112.252
-25.89676355 38.1059303882 112.0832
-27.7752852583 40.8700911418 111.9144
-30.1905274547 44.4240121106 111.7456
-30.3247075767 44.6214521645 111.5768
-31.3981485529 46.2009725951 111.408
-31.6665087969 46.5958527027 111.2392
-31.5323286749 46.3984126489 111.0704
-31.6665087969 46.5958527027 110.9016
-31.800688919 46.7932927565 110.7328
-32.069049163 47.1881728642 110.564
-32.6057696511 47.9779330795 110.3952
-33.2766702612 48.9651333486 110.2264
-33.8133907493 49.7548935639 110.0576
-33.8133907493 49.7548935639 109.8888
-34.3501112374 50.5446537792 109.72
-34.3501112374 50.5446537792 109.5512
-34.7526516034 51.1369739407 109.3824
-34.7526516034 51.1369739407 109.2136
-35.5577323355 52.3216142636 109.0448
-36.0944528236 53.1113744789 108.876
-36.4969931897 53.7036946404 108.7072
-36.3628130677 53.5062545866 108.5384
-36.3628130677 53.5062545866 108.3696
-36.8995335558 54.2960148019 108.2008
-37.3020739218 54.8883349634 108.032
-37.3020739218 54.8883349634 107.8632
-37.9729745319 55.8755352325 107.6944
-38.778055264 57.0601755554 107.5256
-39.5831359962 58.2448158784 107.3568
-39.8514962402 58.639695986 107.188
-28.8487262345 42.4496115724 87.6072
-30.9956081868 45.6086524336 85.4128
-30.9956081868 45.6086524336 85.244
-31.2639684309 46.0035325412 84.9064
-31.6665087969 46.5958527027 84.4
-31.6665087969 46.5958527027 84.2312
-34.0817509933 50.1497736716 84.0624
-34.4842913594 50.742093833 83.8936
39.7173161182 -58.4422559322 69.208
40.1198564843 -59.0345760937 69.0392
39.8514962402 -58.639695986 68.8704
39.1805956301 -57.6524957169 68.7016
38.375514898 -56.467855394 68.5328
38.643875142 -56.8627355016 68.364
38.643875142 -56.8627355016 68.1952
38.643875142 -56.8627355016 68.0264
38.375514898 -56.467855394 67.8576
37.5704341659 -55.283215071 67.6888
36.8995335558 -54.2960148019 67.52
37.0337136778 -54.4934548557 67.3512
36.6311733117 -53.9011346942 67.1824
36.3628130677 -53.5062545866 67.0136
36.3628130677 -53.5062545866 66.8448
36.0944528236 -53.1113744789 66.676
35.2893720915 -51.926734156 66.5072
35.1551919695 -51.7292941022 66.3384
35.5577323355 -52.3216142636 66.1696
35.2893720915 -51.926734156 66.0008
34.6184714814 -50.9395338869 65.832
34.4842913594 -50.742093833 65.6632
33.9475708713 -49.9523336177 65.4944
33.4108503832 -49.1625734024 65.3256
33.0083100171 -48.570253241 65.1568
33.1424901392 -48.7676932948 64.988
32.8741298951 -48.3728131871 64.8192
32.7399497731 -48.1753731333 64.6504
32.4715895291 -47.7804930257 64.4816
32.4715895291 -47.7804930257 64.3128
31.800688919 -46.7932927565 64.144
31.5323286749 -46.3984126489 63.9752
31.5323286749 -46.3984126489 63.8064
31.3981485529 -46.2009725951 63.6376
31.2639684309 -46.0035325412 63.4688
31.5323286749 -46.3984126489 63.3
31.2639684309 -46.0035325412 63.1312
29.6538069666 -43.6342518953 62.9624
26.2993039161 -38.6982505497 62.7936
25.0916828179 -36.9212900653 62.6248
25.0916828179 -36.9212900653 62.456
25.2258629399 -37.1187301191 62.2872
23.4815213537 -34.5520094194 62.1184
21.4688195233 -31.590408612 61.9496
21.3346394013 -31.3929685582 61.7808
19.9928381811 -29.4185680199 61.612
18.919397205 -27.8390475893 61.4432
17.3092357407 -25.4697669434 61.2744
16.9066953746 -24.877446782 61.1056
15.6990742764 -23.1004862975 60.9368
15.9674345205 -23.4953664052 60.768
15.5648941544 -22.9030462437 60.5992
14.8939935443 -21.9158459746 60.4304
14.2230929342 -20.9286457055 60.2616
13.5521923241 -19.9414454363 60.0928
11.8078507378 -17.3747247366 59.924
10.8685898837 -15.9926443598 59.7552
11.0027700057 -16.1900844137 59.5864
12.3445712259 -18.1644849519 59.4176
9.25842841944 -13.6233637139 59.2488
7.51408683317 -11.0566430142 59.08
6.30646573498 -9.27968252978 58.9112
6.57482597903 -9.67456263743 58.7424
6.30646573498 -9.27968252978 58.5736
6.17228561296 -9.08224247595 58.4048
5.63556512488 -8.29248226065 58.236
6.30646573498 -9.27968252978 58.0672
5.23302475882 -7.70016209918 57.8984
6.440645857 -9.4771225836 57.7296
7.51408683317 -11.0566430142 57.5608
7.78244707721 -11.4515231219 57.392
8.05080732126 -11.8464032295 57.2232
8.05080732126 -11.8464032295 57.0544
7.78244707721 -11.4515231219 56.8856
7.11154646711 -10.4643228527 56.7168
6.97736634509 -10.2668827989 56.548
7.51408683317 -11.0566430142 56.3792
6.97736634509 -10.2668827989 56.2104
7.24572658913 -10.6617629066 56.0416
7.24572658913 -10.6617629066 55.8728
6.17228561296 -9.08224247595 55.704
6.440645857 -9.4771225836 55.5352
6.03810549094 -8.88480242213 55.3664
5.50138500286 -8.09504220683 55.1976
5.0988446368 -7.50272204535 55.0288
5.0988446368 -7.50272204535 54.86
5.0988446368 -7.50272204535 54.6912
5.50138500286 -8.09504220683 54.5224
5.0988446368 -7.50272204535 54.3536
5.50138500286 -8.09504220683 54.1848
5.90392536892 -8.6873623683 54.016
5.23302475882 -7.70016209918 53.8472
5.0988446368 -7.50272204535 53.6784
5.0988446368 -7.50272204535 53.5096
5.23302475882 -7.70016209918 53.3408
4.83048439275 -7.1078419377 53.172
4.56212414871 -6.71296183005 53.0032
4.69630427073 -6.91040188388 52.8344
4.83048439275 -7.1078419377 52.6656
4.96466451477 -7.30528199153 52.4968
4.69630427073 -6.91040188388 52.328
4.56212414871 -6.71296183005 52.1592
4.29376390467 -6.3180817224 51.9904
4.56212414871 -6.71296183005 51.8216
4.69630427073 -6.91040188388 51.6528
4.56212414871 -6.71296183005 51.484
4.69630427073 -6.91040188388 51.3152
4.96466451477 -7.30528199153 51.1464
4.96466451477 -7.30528199153 50.9776
4.83048439275 -7.1078419377 50.8088
4.56212414871 -6.71296183005 50.64
4.69630427073 -6.91040188388 50.4712
4.83048439275 -7.1078419377 50.3024
4.56212414871 -6.71296183005 50.1336
4.69630427073 -6.91040188388 49.9648
4.69630427073 -6.91040188388 49.796
4.69630427073 -6.91040188388 49.6272
4.69630427073 -6.91040188388 49.4584
4.56212414871 -6.71296183005 49.2896
4.56212414871 -6.71296183005 49.1208
4.02540366063 -5.92320161475 48.952
4.02540366063 -5.92320161475 48.7832
4.15958378265 -6.12064166858 48.6144
3.89122353861 -5.72576156093 48.4456
4.02540366063 -5.92320161475 48.2768
4.02540366063 -5.92320161475 48.108
3.89122353861 -5.72576156093 47.9392
3.62286329457 -5.33088145328 47.7704
3.62286329457 -5.33088145328 47.6016
3.89122353861 -5.72576156093 47.4328
3.62286329457 -5.33088145328 47.264
3.62286329457 -5.33088145328 47.0952
3.75704341659 -5.5283215071 46.9264
3.48868317254 -5.13344139945 46.7576
3.48868317254 -5.13344139945 46.5888
3.62286329457 -5.33088145328 46.42
3.48868317254 -5.13344139945 46.2512
3.48868317254 -5.13344139945 46.0824
3.35450305052 -4.93600134563 45.9136
3.2203229285 -4.7385612918 45.7448
3.48868317254 -5.13344139945 45.576
3.62286329457 -5.33088145328 45.4072
3.35450305052 -4.93600134563 45.2384
3.35450305052 -4.93600134563 45.0696
3.75704341659 -5.5283215071 44.9008
3.62286329457 -5.33088145328 44.732
3.62286329457 -5.33088145328 44.5632
3.75704341659 -5.5283215071 44.3944
4.02540366063 -5.92320161475 44.2256
3.89122353861 -5.72576156093 44.0568
3.75704341659 -5.5283215071 43.888
3.75704341659 -5.5283215071 43.7192
3.75704341659 -5.5283215071 43.5504
3.75704341659 -5.5283215071 43.3816
3.62286329457 -5.33088145328 43.2128
3.48868317254 -5.13344139945 43.044
3.35450305052 -4.93600134563 42.8752
3.2203229285 -4.7385612918 42.7064
3.2203229285 -4.7385612918 42.5376
3.2203229285 -4.7385612918 42.3688
3.08614280648 -4.54112123798 42.2
2.95196268446 -4.34368118415 42.0312
2.81778256244 -4.14624113033 41.8624
2.68360244042 -3.9488010765 41.6936
2.41524219638 -3.55392096885 41.5248
2.01270183031 -2.96160080738 41.356
1.87852170829 -2.76416075355 41.1872
1.87852170829 -2.76416075355 41.0184
1.61016146425 -2.3692806459 40.8496
1.47598134223 -2.17184059208 40.6808
1.34180122021 -1.97440053825 40.512
1.34180122021 -1.97440053825 40.3432
0.939260854147 -1.38208037678 40.1744
0.805080732126 -1.18464032295 40.0056
0.805080732126 -1.18464032295 39.8368
0.939260854147 -1.38208037678 39.668
0.805080732126 -1.18464032295 39.4992
0.805080732126 -1.18464032295 39.3304
0.670900610105 -0.987200269125 39.1616
0.536720488084 -0.7897602153 38.9928
0.670900610105 -0.987200269125 38.824
0.805080732126 -1.18464032295 38.6552
0.939260854147 -1.38208037678 38.4864
0.939260854147 -1.38208037678 38.3176
0.670900610105 -0.987200269125 38.1488
0.670900610105 -0.987200269125 37.98
0.805080732126 -1.18464032295 37.8112
0.805080732126 -1.18464032295 37.6424
0.536720488084 -0.7897602153 37.4736
0.536720488084 -0.7897602153 37.3048
0.670900610105 -0.987200269125 37.136
0.670900610105 -0.987200269125 36.9672
0.805080732126 -1.18464032295 36.7984
0.805080732126 -1.18464032295 36.6296
0.670900610105 -0.987200269125 36.4608
0.536720488084 -0.7897602153 36.292
0.402540366063 -0.592320161475 36.1232
0.402540366063 -0.592320161475 35.9544
0.536720488084 -0.7897602153 35.7856
0.402540366063 -0.592320161475 35.6168
0.402540366063 -0.592320161475 35.448
0.536720488084 -0.7897602153 35.2792
0.134180122021 -0.197440053825 35.1104
0.268360244042 -0.39488010765 34.9416
0.402540366063 -0.592320161475 34.7728
0.536720488084 -0.7897602153 34.604
0.536720488084 -0.7897602153 34.4352
0.536720488084 -0.7897602153 34.2664
0.268360244042 -0.39488010765 34.0976
0.402540366063 -0.592320161475 33.9288
0.536720488084 -0.7897602153 33.76
0.402540366063 -0.592320161475 33.5912
0.536720488084 -0.7897602153 33.4224
0.402540366063 -0.592320161475 33.2536
0.268360244042 -0.39488010765 33.0848
0.268360244042 -0.39488010765 32.916
0.402540366063 -0.592320161475 32.7472
0.402540366063 -0.592320161475 32.5784
0.805080732126 -1.18464032295 32.4096
0.536720488084 -0.7897602153 32.2408
0.268360244042 -0.39488010765 32.072
0.268360244042 -0.39488010765 31.9032
0.268360244042 -0.39488010765 31.7344
0.402540366063 -0.592320161475 31.5656
0.402540366063 -0.592320161475 31.3968
0.402540366063 -0.592320161475 31.228
0.670900610105 -0.987200269125 31.0592
0.536720488084 -0.7897602153 30.8904
0.670900610105 -0.987200269125 30.7216
0.536720488084 -0.7897602153 30.5528
0.536720488084 -0.7897602153 30.384
0.536720488084 -0.7897602153 30.2152
0.402540366063 -0.592320161475 30.0464
1.07344097617 -1.5795204306 29.8776
1.34180122021 -1.97440053825 29.7088
1.34180122021 -1.97440053825 29.54
0.670900610105 -0.987200269125 29.3712
0.536720488084 -0.7897602153 29.2024
0.402540366063 -0.592320161475 29.0336
0.536720488084 -0.7897602153 28.8648
0.536720488084 -0.7897602153 28.696
0.536720488084 -0.7897602153 28.5272
0.536720488084 -0.7897602153 28.3584
0.670900610105 -0.987200269125 28.1896
0.670900610105 -0.987200269125 28.0208
0.670900610105 -0.987200269125 27.852
0.402540366063 -0.592320161475 27.6832
0.268360244042 -0.39488010765 27.5144
0.402540366063 -0.592320161475 27.3456
0.536720488084 -0.7897602153 27.1768
0.939260854147 -1.38208037678 27.008
1.20762109819 -1.77696048443 26.8392
0.939260854147 -1.38208037678 26.6704
0.939260854147 -1.38208037678 26.5016
0.939260854147 -1.38208037678 26.3328
1.20762109819 -1.77696048443 26.164
0.939260854147 -1.38208037678 25.9952
0.805080732126 -1.18464032295 25.8264
0.939260854147 -1.38208037678 25.6576
1.20762109819 -1.77696048443 25.4888
1.20762109819 -1.77696048443 25.32
1.07344097617 -1.5795204306 25.1512
1.07344097617 -1.5795204306 24.9824
0.939260854147 -1.38208037678 24.8136
1.20762109819 -1.77696048443 24.6448
1.07344097617 -1.5795204306 24.476
1.07344097617 -1.5795204306 24.3072
0.805080732126 -1.18464032295 24.1384
1.20762109819 -1.77696048443 23.9696
1.20762109819 -1.77696048443 23.8008
1.61016146425 -2.3692806459 23.632
1.47598134223 -2.17184059208 23.4632
1.47598134223 -2.17184059208 23.2944
1.61016146425 -2.3692806459 23.1256
1.87852170829 -2.76416075355 22.9568
1.47598134223 -2.17184059208 22.788
1.47598134223 -2.17184059208 22.6192
2.01270183031 -2.96160080738 22.4504
2.14688195233 -3.1590408612 22.2816
2.14688195233 -3.1590408612 22.1128
2.14688195233 -3.1590408612 21.944
2.68360244042 -3.9488010765 21.7752
2.5494223184 -3.75136102268 21.6064
2.14688195233 -3.1590408612 21.4376
2.28106207436 -3.35648091503 21.2688
2.5494223184 -3.75136102268 21.1
2.01270183031 -2.96160080738 20.9312
1.87852170829 -2.76416075355 20.7624
2.5494223184 -3.75136102268 20.5936
3.08614280648 -4.54112123798 20.4248
2.68360244042 -3.9488010765 20.256
2.01270183031 -2.96160080738 20.0872
2.01270183031 -2.96160080738 19.9184
2.14688195233 -3.1590408612 19.7496
2.5494223184 -3.75136102268 19.5808
2.68360244042 -3.9488010765 19.412
2.95196268446 -4.34368118415 19.2432
2.5494223184 -3.75136102268 19.0744
2.5494223184 -3.75136102268 18.9056
3.08614280648 -4.54112123798 18.7368
2.41524219638 -3.55392096885 18.568
2.81778256244 -4.14624113033 18.3992
2.5494223184 -3.75136102268 18.2304
3.48868317254 -5.13344139945 18.0616
3.08614280648 -4.54112123798 17.8928
3.2203229285 -4.7385612918 17.724
3.08614280648 -4.54112123798 17.5552
3.35450305052 -4.93600134563 17.3864
3.48868317254 -5.13344139945 17.2176
3.89122353861 -5.72576156093 17.0488
3.48868317254 -5.13344139945 16.88
2.41524219638 -3.55392096885 16.7112
2.68360244042 -3.9488010765 16.5424
2.95196268446 -4.34368118415 16.3736
3.89122353861 -5.72576156093 16.2048
4.42794402669 -6.51552177623 16.036
4.42794402669 -6.51552177623 15.8672
4.96466451477 -7.30528199153 15.6984
5.23302475882 -7.70016209918 15.5296
5.50138500286 -8.09504220683 15.3608
5.63556512488 -8.29248226065 15.192
5.23302475882 -7.70016209918 15.0232
0.134180122021 -0.197440053825 133.1832
0.134180122021 -0.197440053825 133.0144
0.134180122021 -0.197440053825 132.8456
0.134180122021 -0.197440053825 132.6768
0.134180122021 -0.197440053825 132.508
0.134180122021 -0.197440053825 132.3392
0.134180122021 -0.197440053825 132.1704
0.134180122021 -0.197440053825 132.0016
0.134180122021 -0.197440053825 131.8328
0.134180122021 -0.197440053825 131.664
0.134180122021 -0.197440053825 131.4952
0.134180122021 -0.197440053825 131.3264
0.134180122021 -0.197440053825 131.1576
0.127912170268 -0.201557328563 133.1832
0.127912170268 -0.201557328563 133.0144
0.127912170268 -0.201557328563 132.8456
0.127912170268 -0.201557328563 132.6768
0.127912170268 -0.201557328563 132.508
0.127912170268 -0.201557328563 132.3392
0.127912170268 -0.201557328563 132.1704
0.127912170268 -0.201557328563 132.0016
0.127912170268 -0.201557328563 131.8328
0.127912170268 -0.201557328563 131.664
0.127912170268 -0.201557328563 131.4952
0.127912170268 -0.201557328563 131.3264
0.127912170268 -0.201557328563 131.1576
0.127912170268 -0.201557328563 130.9888
0.127912170268 -0.201557328563 130.82
0.127912170268 -0.201557328563 130.6512
0.127912170268 -0.201557328563 130.4824
0.127912170268 -0.201557328563 130.3136
0.127912170268 -0.201557328563 130.1448
0.127912170268 -0.201557328563 129.976
0.127912170268 -0.201557328563 129.8072
0.127912170268 -0.201557328563 129.6384
0.127912170268 -0.201557328563 129.4696
0.127912170268 -0.201557328563 129.3008
0.127912170268 -0.201557328563 129.132
0.127912170268 -0.201557328563 128.9632
0.127912170268 -0.201557328563 128.7944
0.127912170268 -0.201557328563 128.6256
0.127912170268 -0.201557328563 128.4568
0.127912170268 -0.201557328563 128.288
0.127912170268 -0.201557328563 128.1192
0.127912170268 -0.201557328563 127.9504
0.127912170268 -0.201557328563 127.7816
0.127912170268 -0.201557328563 127.6128
0.127912170268 -0.201557328563 127.444
0.127912170268 -0.201557328563 127.2752
0.127912170268 -0.201557328563 127.1064
0.127912170268 -0.201557328563 126.9376
0.127912170268 -0.201557328563 126.7688
0.127912170268 -0.201557328563 126.6
0.127912170268 -0.201557328563 126.4312
0.127912170268 -0.201557328563 126.2624
0.127912170268 -0.201557328563 126.0936
0.127912170268 -0.201557328563 125.9248
0.127912170268 -0.201557328563 125.756
0.127912170268 -0.201557328563 125.5872
0.127912170268 -0.201557328563 125.4184
0.127912170268 -0.201557328563 125.2496
0.127912170268 -0.201557328563 125.0808
0.127912170268 -0.201557328563 124.912
0.127912170268 -0.201557328563 124.7432
0.127912170268 -0.201557328563 124.5744
0.127912170268 -0.201557328563 124.4056
0.127912170268 -0.201557328563 124.2368
0.127912170268 -0.201557328563 124.068
0.127912170268 -0.201557328563 123.8992
0.127912170268 -0.201557328563 123.7304
0.127912170268 -0.201557328563 123.5616
0.127912170268 -0.201557328563 123.3928
0.127912170268 -0.201557328563 123.224
0.127912170268 -0.201557328563 123.0552
0.127912170268 -0.201557328563 122.8864
0.127912170268 -0.201557328563 122.7176
0.127912170268 -0.201557328563 122.5488
0.127912170268 -0.201557328563 122.38
0.127912170268 -0.201557328563 122.2112
0.127912170268 -0.201557328563 122.0424
0.127912170268 -0.201557328563 121.8736
0.127912170268 -0.201557328563 121.7048
0.127912170268 -0.201557328563 121.536
0.127912170268 -0.201557328563 121.3672
0.127912170268 -0.201557328563 121.1984
0.127912170268 -0.201557328563 121.0296
0.127912170268 -0.201557328563 120.8608
0.127912170268 -0.201557328563 120.692
0.127912170268 -0.201557328563 120.5232
0.127912170268 -0.201557328563 120.3544
0.127912170268 -0.201557328563 120.1856
0.127912170268 -0.201557328563 120.0168
0.127912170268 -0.201557328563 119.848
0.127912170268 -0.201557328563 119.6792
0.127912170268 -0.201557328563 119.5104
0.127912170268 -0.201557328563 119.3416
-0.127912170268 0.201557328563 119.1728
-0.255824340535 0.403114657126 119.004
-0.639560851338 1.00778664281 118.8352
-1.91868255401 3.02335992844 118.6664
-2.55824340535 4.03114657126 118.4976
-3.06989208642 4.83737588551 118.3288
-3.70945293776 5.84516252833 118.16
-4.09318944856 6.44983451402 117.9912
-3.70945293776 5.84516252833 117.8224
-3.32571642696 5.24049054264 117.6536
-5.1164868107 8.06229314252 117.4848
-6.13978417284 9.67475177102 117.316
-7.67473021605 12.0934397138 117.1472
-7.67473021605 12.0934397138 116.9784
-7.54681804578 11.8918823852 116.8096
-8.57011540792 13.5043410137 116.6408
-9.20967625926 14.5121276565 116.472
-9.8492371106 15.5199142994 116.3032
-10.4887979619 16.5277009422 116.1344
-11.000446643 17.3339302564 115.9656
-11.000446643 17.3339302564 115.7968
-10.6167101322 16.7292582707 115.628
-11.6400074943 18.3417168992 115.4592
-12.5353926862 19.7526181992 115.2904
-13.5586900484 21.3650768277 115.1216
-14.1982508997 22.3728634705 114.9528
-14.4540752402 22.7759781276 114.784
-15.2215482618 23.985322099 114.6152
-15.4773726024 24.3884367561 114.4464
-16.6285821348 26.2024527132 114.2776
-16.8844064753 26.6055673703 114.1088
-16.756494305 26.4040100418 113.94
-17.2681429861 27.210239356 113.7712
-18.6751768591 29.4273699702 113.6024
-18.8030890293 29.6289272988 113.4336
-19.1868255401 30.2335992844 113.2648
-19.6984742212 31.0398285987 113.096
-21.3613324347 33.66007387 112.9272
-22.1288054563 34.8694178414 112.7584
-22.2567176265 35.07097517 112.5896
-22.8962784779 36.0787618128 112.4208
-23.6637514995 37.2881057842 112.252
-24.4312245211 38.4974497555 112.0832
-27.6290287778 43.5363829696 111.9144
-28.3965017994 44.745726941 111.7456
-28.9081504805 45.5519562552 111.5768
-29.2918869913 46.1566282409 111.408
-29.9314478426 47.1644148837 111.2392
-30.0593600129 47.3659722123 111.0704
-30.1872721831 47.5675295409 110.9016
-30.1872721831 47.5675295409 110.7328
-30.4430965237 47.970644198 110.564
-31.2105695453 49.1799881694 110.3952
-31.8501303966 50.1877748122 110.2264
-32.3617790777 50.9940041264 110.0576
-32.489691248 51.195561455 109.8888
-33.001339929 52.0017907693 109.72
-33.001339929 52.0017907693 109.5512
-33.3850764398 52.6064627549 109.3824
-33.5129886101 52.8080200835 109.2136
-33.8967251209 53.4126920692 109.0448
-34.408373802 54.2189213834 108.876
-34.5362859722 54.420478712 108.7072
-34.5362859722 54.420478712 108.5384
-35.0479346533 55.2267080263 108.3696
-34.920022483 55.0251506977 108.2008
-35.3037589938 55.6298226834 108.032
-35.8154076749 56.4360519976 107.8632
-36.1991441857 57.0407239833 107.6944
-36.4549685262 57.4438386405 107.5256
-37.0945293776 58.4516252833 107.3568
-37.7340902289 59.4594119261 107.188
-38.24573891 60.2656412403 107.0192
-30.6989208642 48.3737588551 92.6712
-22.2567176265 35.07097517 92.5024
-37.7340902289 59.4594119261 91.996
-27.6290287778 43.5363829696 87.1008
-28.0127652886 44.1410549553 86.4256
-28.0127652886 44.1410549553 86.2568
-30.5710086939 48.1722015266 85.0752
-19.3147377104 30.435156613 84.7376
-30.0593600129 47.3659722123 84.5688
-30.1872721831 47.5675295409 84.4
-30.3151843534 47.7690868694 84.2312
-30.4430965237 47.970644198 84.0624
-30.4430965237 47.970644198 83.8936
-32.7455155885 51.5986761121 83.7248
6.77934502418 -10.6825384138 83.556
37.8620023992 -59.6609692546 68.8704
37.8620023992 -59.6609692546 68.7016
37.2224415478 -58.6531826118 68.5328
37.0945293776 -58.4516252833 68.364
36.5828806965 -57.645395969 68.1952
36.7107928668 -57.8469532976 68.0264
36.4549685262 -57.4438386405 67.8576
36.5828806965 -57.645395969 67.6888
36.1991441857 -57.0407239833 67.52
35.8154076749 -56.4360519976 67.3512
